# .PCD v0.7 - Point Cloud Data file format
VERSION 0.7
FIELDS x y z normal_x normal_y normal_z curvature
SIZE 4 4 4 4 4 4 4
TYPE F F F F F F F
COUNT 1 1 1 1 1 1 1
WIDTH 593
HEIGHT 1
VIEWPOINT 0 0 0 1 0 0 0
POINTS 593
DATA ascii
0.0046355743 -0.052947015 1.7176766 -4.1176441e-05 -6.5015752e-06 1 5.8708371e-11
0.011286039 -0.053181082 1.7252702 0.057435896 -0.090690993 -2.0887728 0.0060515823
0.012437763 -0.053278685 1.7271539 0.31642953 -0.81311059 -0.58962953 0.0061405157
0.015758269 -0.053358003 1.7310096 -0.12476766 0.04841467 -1.9941308 0.0035397955
0.021242591 -0.053389456 1.7368885 0.58983177 -0.66464931 -0.45862812 0.0089835189
0.050813127 -0.054692779 1.7742934 1.2673608 -1.2160009 0.58519244 0.036696095
0.055590179 -0.054914631 1.7802916 -0.32499957 0.27426848 0.93204308 0.047664206
0.056099515 -0.054869141 1.7803818 0.034470547 -0.039086819 -1.5186466 0.050898522
0.066455789 -0.054942023 1.7823979 1.5211401 -3.8448543e-06 0.9996978 2.0089272e-09
0.071109027 -0.055004682 1.7844322 0.43260786 -0.12318763 -1.3027185 0.11936457
0.090739876 -0.055130873 1.7885243 0.00015939702 6.7561734e-05 1 7.3211859e-10
0.10393873 -0.056725975 1.8390694 0.5781315 -0.66786075 -0.46891162 0.0050192913
0.10899379 -0.056877557 1.8456247 0.54268438 -0.74121124 -0.39509431 0.00069874985
0.11364552 -0.057222012 1.8520941 0.63110292 -0.65143824 -0.43570614 0.0094388165
0.12123653 -0.057365529 1.8610195 0.68944442 -0.26945579 -0.91222697 0.0036904274
0.12312625 -0.057378698 1.863281 0.57932162 -0.64654535 -0.49810219 0.0042118682
0.1246348 -0.057598963 1.8653777 0.67796105 -0.53737843 -0.50159067 0.0020013046
0.12645656 -0.057571433 1.8676995 0.60354936 -0.60350031 -0.5570063 0.0041996669
0.12737009 -0.057790525 1.8698553 0.69074106 -0.63538843 -0.34519324 0.0053812703
0.12768538 -0.057512775 1.8700012 0.64384812 -0.68296981 -0.34498101 0.0070701959
0.13388981 -0.059273448 1.9229153 0.94973212 -7.8930672e-05 -0.31306362 0
0.13443813 -0.057917912 1.8789397 -9.2458009e-05 3.9626349e-05 1 2.2557132e-09
0.13777834 -0.058057673 1.8834738 8.1383456e-05 -4.6505527e-05 1 3.4039727e-10
0.13838148 -0.058057673 1.8834738 8.1383456e-05 -4.6505527e-05 1 3.4039727e-10
-0.040499087 -0.053157344 1.7426037 -1.3740602 -1.3742119 -1.6001161 0.020161543
-0.033764809 -0.05309806 1.7406605 -0.00014914782 0.00013775918 1 3.3149588e-09
-0.018056205 -0.052803662 1.7310095 7.1937684e-05 -6.9678637e-05 1 2.3310229e-09
-0.017501906 -0.052803647 1.7310096 0.12354088 -0.00011669254 1.2107821 0.0092328694
-0.012490847 -0.052684736 1.7271706 0.049790207 -0.016635574 1.1879638 0.012426283
-0.01193205 -0.052686818 1.7271791 -4.176774e-05 -4.6100718e-06 1 1.3523613e-09
-0.0030721091 -0.052512512 1.7214651 178.57204 -0.00010123869 0.99098992 2.4428344e-09
0.0040855082 -0.052396949 1.7176766 -4.1176441e-05 -6.5015752e-06 1 5.8708371e-11
0.012318632 -0.052553251 1.725328 0.58460295 -0.69769436 -0.42402208 0.0083798664
0.013531357 -0.052708883 1.7271627 0.45189545 -0.97126853 -0.21796799 0.0054631457
0.016866941 -0.052803665 1.7310096 0.43039832 -0.56475055 -0.75870281 0.0028337787
0.023024995 -0.053002208 1.7387518 0.66292 -0.58012533 -0.47327754 0.0056779771
0.038224179 -0.05332819 1.7565287 0.63528615 -0.60012996 -0.48606122 0.016878229
0.04320249 -0.053845178 1.7642516 0.57469428 -0.70111859 -0.42208904 0.0052891364
0.046675794 -0.053940114 1.7682648 7.0171554e-05 -0.00011695275 1 3.0302869e-09
0.04724206 -0.053940114 1.7682648 -0.000210518 -0.00021051939 0.99999994 0
0.049025457 -0.054040644 1.7722999 -0.012035915 -0.31971249 -1.6559956 0.038830049
0.056105219 -0.054305781 1.7803696 0.039448973 -0.013383804 -2.8280489 0.03958666
0.056698751 -0.054312449 1.7803608 -0.13347436 0.038108855 -3.2605953 0.048440762
0.071103349 -0.05443339 1.7844353 1.9702588 1.9664287e-05 4.1131115 0.0058907345
0.083198756 -0.054495685 1.7864774 -0.00065982901 -0.00017364339 0.99999994 8.9217822e-10
0.090739876 -0.054558121 1.7885242 0.00010974371 3.8127e-05 1 6.9211009e-10
0.093023986 -0.054559138 1.7885377 -0.78020787 0.066235036 0.73220927 0.080709822
0.10315192 -0.055982396 1.8369726 0.63184804 -0.61653411 -0.48025155 0.0063086646
0.10635686 -0.05612807 1.8412941 0.5311839 -0.66806316 -0.52109051 0.00019574397
0.10828439 -0.056233242 1.8434381 0.41272134 -0.82540679 -0.38518146 0
0.1141414 -0.056506027 1.8521817 0.067343011 -0.096480407 -1.5819933 0.015817687
0.11664757 -0.056567248 1.8543874 0.3226572 -0.78987908 -0.62524277 0.0077054929
0.11846336 -0.056517113 1.8566887 0.57495111 -0.63339907 -0.51791584 0.0052814744
0.12379152 -0.056867439 1.8632188 0.55005431 -0.67504108 -0.49206975 0.0062915119
0.13233137 -0.057204612 1.8744085 0.46483341 -0.7158953 -0.52098358 0.0017345084
0.1395878 -0.057454512 1.8834736 -1.1068249e-19 0.00019764066 1 0
-0.040756892 -0.052490864 1.7442206 8.1224079 8.0333462 0.13292253 0.0569686
-0.037150793 -0.052599285 1.7426035 0.00011502558 -8.2161125e-05 1 0
-0.033764806 -0.052540634 1.7406604 -0.00013520672 0.0001859491 1 4.3574011e-09
-0.028127816 -0.052423727 1.7367873 0.00021013335 -2.5712287e-05 1 6.3012207e-10
-0.02757163 -0.052423727 1.7367872 0.00013659975 -7.2350173e-05 1 6.3012207e-10
-0.017501866 -0.052249324 1.7310095 813.52454 1.7923754e-05 1.1399573 9.1404457e-09
-0.014710381 -0.052192483 1.7290967 0.22796975 0.0078898882 1.1078157 0.013463971
-0.012478548 -0.052136146 1.7271886 0.1233455 -0.034791913 1.1483142 0.010569945
-0.01193205 -0.052133709 1.7271792 -3.992808e-05 -2.1069783e-07 1 1.3756086e-09
-0.0091563733 -0.052076086 1.7252703 0.048560534 -0.048560273 1.2785509 0.0052223261
-0.0058644377 -0.05201187 1.7233341 0.38223886 -0.1065319 1.006098 0.0028421013
-0.0030721095 -0.051961239 1.7214652 288.34009 3.5304904e-05 0.96479005 1.7652044e-09
0.0068358378 -0.05184688 1.7176768 -5.3609281e-05 7.0718575e-05 1 3.7301748e-10
0.015187094 -0.052191455 1.7290922 -0.22311924 -2.5128286 0.98621643 0.0044998671
0.015666053 -0.052098189 1.7291592 0.48187611 -0.81490552 -0.37343577 0.0040735202
0.019105474 -0.052307338 1.7329313 0.59527516 -0.59530121 -0.53968877 3.4939388e-11
0.022048499 -0.052519206 1.7367067 0.69163704 -0.55219597 -0.46552962 0.0033535487
0.025315234 -0.05139447 1.7026883 0.59161216 -0.59161115 -0.54771459 0
0.028172331 -0.05265807 1.7445511 0.54323912 -0.61086351 -0.60886991 0.02294692
0.029881742 -0.052716985 1.7465029 -1.2660379 -2.9136515 1.1355144 0.02294692
0.036757808 -0.05295397 1.754354 0.47367001 -0.63155723 -0.61381775 0
0.042567275 -0.053193085 1.7622761 -3.9983152e-05 -0.95411646 -0.29943573 0
0.047323309 -0.05347009 1.7681888 0.55220139 -0.6540758 -0.51697052 0.0059357975
0.049736846 -0.053616293 1.7721779 0.74138153 -0.48128605 -0.50802159 0.026142569
0.050082594 -0.053387728 1.7723695 0.64450085 -0.56128025 -0.52408129 0.02143077
0.051948726 -0.053555846 1.7742943 1.2553402 -1.2550195 0.92632395 0.0051483121
0.061318655 -0.053800445 1.7823977 -3.6147219e-05 4.0163442e-05 1 3.5948355e-10
0.066455789 -0.053800445 1.7823979 -19.427567 -5.5136221e-05 1.0043628 2.1515516e-09
0.071022235 -0.05380046 1.7823979 0.049234364 1.523064e-05 -5.3669968 0.012199599
0.090739876 -0.053985365 1.7885242 7.8118346e-06 7.8998173e-06 1 8.8022162e-10
0.092954949 -0.054045454 1.7887816 -0.21561161 -0.41701859 0.90747577 0.10934114
0.093712032 -0.054047462 1.7905754 0.24492863 0.01344172 -1.7779479 0.069420397
0.11276156 -0.055821251 1.8477637 0.35077152 -0.92665905 -0.73785961 0.026390813
0.11314683 -0.055698894 1.8478649 0.52085322 -0.79056787 -0.55532014 0.026390813
0.11536692 -0.055960178 1.8521497 0.52858484 -0.66379672 -0.53347188 0.0093241166
0.11578525 -0.055749126 1.8522978 0.57917827 -0.64452857 -0.50121087 0.0093241166
0.12765525 -0.056377836 1.8676981 0.64384812 -0.68296981 -0.34498101 0.0070701959
0.13347223 -0.056512441 1.8744752 0.46483341 -0.7158953 -0.52098358 0.0017345084
-0.041087613 -0.052110624 1.7445697 0.019330634 -0.24593395 1.2661631 0.056744426
-0.040035818 -0.052062854 1.7444769 -0.18271628 -0.50237733 1.1791402 0.039187275
-0.017501866 -0.051694997 1.7310096 326.98621 -0.00048909098 1.0562541 9.1404457e-09
-0.014713891 -0.051637731 1.7290922 0.65133417 -5.2188107e-06 0.75879103 7.6472478e-10
-0.012467106 -0.051587131 1.7272058 0.16032997 -0.029094337 1.1168795 0.010796359
-0.01193205 -0.051580597 1.7271792 -2.2177261e-05 -5.8233313e-06 1 1.3756086e-09
-0.011392551 -0.051575489 1.7271545 0.15145156 -0.047636464 1.0672874 0.012454756
-0.0080449888 -0.05152851 1.7252799 0.11724713 -0.060151659 1.1934235 0.0083332267
-0.0058180899 -0.051470578 1.7233839 0.79831105 -0.1769086 0.60357517 0.0031510752
-0.0030721093 -0.051409952 1.7214651 289.48141 1.9862206e-05 0.96465069 1.7652044e-09
0.010132031 -0.051375218 1.7214848 0.55389082 -0.72436869 -0.4104813 0.003426166
0.012997027 -0.05158541 1.7252245 0.59318948 -0.64524162 -0.48222283 0.0054927776
0.017998112 -0.051723555 1.7309883 0.57826191 -0.63963735 -0.50981838 0.0026041248
0.025879798 -0.051983211 1.7406605 0.95537567 -0.29537684 -0.0031384004 0
0.028731005 -0.052099396 1.7445512 0.27104011 -0.20295823 -1.5350677 0.02294692
0.029848346 -0.052099399 1.7445512 -0.27104148 -0.205154 -2.0961154 0.02294692
0.03904894 -0.0524511 1.7563279 -4.4016271 1.0560322 -10.74657 0.019433537
0.040828139 -0.052569389 1.760289 -3.4544493e-05 -0.95411509 -0.29944009 0
0.049502678 -0.052792698 1.7703118 0.6797362 -0.6683194 -0.32944137 0.0054352139
0.050685428 -0.052856408 1.7723391 0.49318534 -0.71821868 -0.51258898 0.02143077
0.056053523 -0.053108376 1.7783368 -2.3803151 -2.5459964 -0.058063511 0.0040261457
0.066455781 -0.053229652 1.7823977 -48.424931 -0.00052675518 1.0089093 3.1928133e-09
0.080910347 -0.053351488 1.7864773 -0.00044849556 -3.8920145e-05 1 6.2819283e-10
0.083198756 -0.053351488 1.7864776 -7.2958603e-05 -3.2470898e-06 1 1.2219686e-09
0.090739869 -0.053412609 1.7885242 5.4434868e-06 -1.0315804e-06 1 9.1221131e-10
0.092882447 -0.053612478 1.7889465 -0.23763634 -0.5818553 0.80193353 0.10645618
0.09370552 -0.0533037 1.7903235 -1.4244025 -0.31413239 1.0255764 0.11289914
0.095894605 -0.053412337 1.788524 -4.1272674 0.2419654 3.939558 0.066730484
0.1038065 -0.054881003 1.836913 0.74381506 -0.52137315 -0.45244396 0.00432753
0.10566932 -0.054918453 1.8390982 0.60905868 -0.60926789 -0.50853461 0.0018208514
0.11406824 -0.055318262 1.8499466 0.63699406 -0.65913516 -0.40062052 0.015933881
0.11733386 -0.055424795 1.8543189 0.74809194 -0.3660292 -0.55351698 0.0073538525
0.12302445 -0.055577621 1.8610196 0.052674007 -0.8488763 -0.81323183 0.0020348188
0.12362041 -0.055577617 1.8610195 -0.052971594 -1.0004053 -0.73229074 0.0020348188
0.12817809 -0.05571143 1.8677493 0.66116333 -0.59649241 -0.45503831 0.0015294991
0.13411355 -0.055975806 1.874429 0.50738049 -0.66563874 -0.54725695 0.0028482804
-0.041690554 -0.051519878 1.7445173 -0.36576894 0.24064738 1.9173303 0.079365455
-0.017501868 -0.051140659 1.7310097 -156.479 0.00062751072 0.97307968 9.1404457e-09
-0.01193205 -0.051027492 1.7271792 9.4346597e-06 -1.1886867e-05 1 1.5731751e-09
-0.0080544474 -0.050969534 1.725266 -0.068680085 0.051808063 1.3508955 0.014402889
-0.0075207991 -0.050960019 1.7252393 0.22522461 -0.014284625 1.1109108 0.010864913
-0.0030721093 -0.050858673 1.7214651 290.08981 -1.1160329e-06 0.96457636 1.7652044e-09
-0.0025208301 -0.050858676 1.7214651 -287.9852 8.2963925e-05 1.0351666 1.7652046e-09
0.007385904 -0.05074675 1.7176766 -0.00021671828 0.00021671856 0.99999994 0
0.011899665 -0.050991081 1.7233046 0.46370792 -1.0148791 -0.17754377 0.00530391
0.012282862 -0.050817706 1.723443 0.55305803 -0.91452539 -0.19433069 0.00530391
0.013499452 -0.050975364 1.7252667 0.60087723 -0.63671422 -0.49059114 0.0064255623
0.017229954 -0.052241318 1.7682648 0.65016156 -0.65016156 -0.39316648 0
0.02186022 -0.051193066 1.734902 0.5037086 -0.69620985 -0.51143861 0.0017957205
0.029848348 -0.051540725 1.7445511 -0.27207905 0.20412344 -2.7420957 0.02294692
0.03904894 -0.051888652 1.7563277 -4.0439749 -1.0597674 -6.8767481 0.019433537
0.040749155 -0.051895328 1.7583266 0.5099138 -0.80001217 -0.31617787 0.0056095221
0.051396653 -0.052469 1.7722076 0.4259609 -0.74035913 -0.52697051 0.0081820088
0.051852159 -0.052297585 1.7723229 0.41927716 -0.86754274 -0.34243748 0.0049347314
0.083198756 -0.052779391 1.7864776 -9.5960226e-05 -6.0317954e-05 1 1.190217e-10
0.090167128 -0.05283986 1.7885242 8.4502688e-07 9.9432032e-07 1 8.60641e-10
0.090739869 -0.05283986 1.7885242 -1.1110748e-06 -1.0933732e-05 1 7.9379847e-10
0.092718296 -0.053170543 1.7892798 -0.35869727 -0.42480773 0.83303267 0.076069295
0.093747146 -0.05287591 1.79049 -0.86512238 0.075410776 0.77937591 0.086375192
0.10305447 -0.054190803 1.8347844 0.60126317 -0.62563181 -0.52166706 0.0042180661
0.10435358 -0.054252066 1.8369461 0.61977661 -0.6056478 -0.49989051 0.0064579104
0.11390752 -0.054614127 1.8477777 0.84066403 -0.36493725 -0.41409883 0.034702148
0.13275619 -0.055312481 1.8721784 0.47805265 -0.72096711 -0.50519776 0.0017320678
0.13744666 -0.05551108 1.8789397 -0.00019810804 0.000396221 0.99999988 0
0.13964786 -0.05423395 1.8369528 0.42724061 -0.76721823 -0.47837397 0.0048716362
-0.029769644 -0.050828256 1.738773 0.86985916 -0.40352553 0.4248867 0.0090504615
-0.028111568 -0.050759047 1.7368059 0.21515051 -0.092121981 1.1355772 0.027274992
-0.027603034 -0.050747663 1.7367511 0.044647209 -0.0034995358 1.3024269 0.027274992
-0.017501868 -0.050586324 1.7310095 -644.06598 0.00017225221 0.8891961 9.1404457e-09
-0.01193205 -0.050474379 1.7271792 5.4337102e-05 -1.7736002e-05 1 2.2453184e-09
-0.011378941 -0.050474379 1.7271792 -0.00010349428 1.9808551e-05 1 2.2453184e-09
-0.0075114183 -0.050413337 1.7252526 0.19012715 -0.027238535 1.11981 0.0091577061
-0.0030721093 -0.050307397 1.7214651 289.59192 -2.7303793e-05 0.96463716 1.7652044e-09
-0.0025208301 -0.050307401 1.7214651 4.3633117e-05 8.094552e-06 1 1.0845734e-09
0.010075149 -0.050175928 1.7196271 0.60170442 -0.63335896 -0.48662943 0.0013662429
0.017479939 -0.050637778 1.7290143 0.50631285 -0.69806534 -0.50631219 0.006411497
0.017874822 -0.050432768 1.7291642 0.55482501 -0.66897047 -0.49461877 0.0058872378
0.020807704 -0.050682247 1.7329011 0.59989005 -0.6381824 -0.48255068 0.001431835
0.030407019 -0.050982051 1.7445511 -0.54421639 0.61216652 -3.6684463 0.02294692
0.03900034 -0.051263407 1.7543576 1.138235 -0.29431742 -0.26479453 0.0038890112
0.047100075 -0.051529899 1.7642826 0.739959 -0.59582287 -0.31217909 0.0018007375
0.047850095 -0.051718149 1.7662057 0.63327157 -0.67097455 -0.38569444 0.0076287431
0.049504824 -0.051672462 1.7682666 0.64278948 -0.62976182 -0.4406063 0.004737346
0.050234847 -0.051877491 1.7701874 0.61186975 -0.69298142 -0.39240155 0.0074412506
0.050634217 -0.051647261 1.7703196 0.49524242 -0.75720966 -0.42832443 0.0074412506
0.063304037 -0.051811274 1.7823457 0.72652555 -0.67529464 0.12703457 0.020303035
0.071022123 -0.052088071 1.7823979 -6.669991 -0.00020339999 -0.022751572 0.064123511
0.087876096 -0.052267101 1.7885242 -2.3374658e-05 -2.4231527e-05 1 1.013291e-09
0.08844886 -0.052267101 1.7885242 -2.5161657e-05 -1.6412756e-05 1 8.4090024e-10
0.09016712 -0.052267104 1.7885243 -1.2404481e-05 -1.1861794e-05 1 6.9112072e-10
0.090739876 -0.052267104 1.7885243 -9.7175835e-06 -1.9654273e-05 1 6.8177641e-10
0.093758479 -0.05229561 1.790439 -0.83707339 0.01460541 0.79611713 0.088366717
0.10685133 -0.053744931 1.8390945 0.64575016 -0.64575881 -0.40743384 9.5244e-11
0.11260047 -0.053958364 1.8455936 0.20106255 -1.165627 -0.9946155 0.017871002
0.11304248 -0.053891502 1.8456641 0.39181253 -0.94203949 -0.80291569 0.017871002
0.11388166 -0.054012053 1.8477921 0.76233494 -0.43817827 -0.5012418 0.037835613
0.11417511 -0.053756952 1.8480015 0.7010361 -0.50303519 -0.51305962 0.031777062
0.11576477 -0.054048974 1.8500031 0.58157194 -0.64961475 -0.49067 0.0097924946
0.12615469 -0.054450598 1.8632408 0 0 1 0
0.13137668 -0.054611873 1.8699619 0.45803785 -0.71752667 -0.52474451 0.00024873385
0.13804835 -0.054909371 1.8789396 -0.00019810804 0.000396221 0.99999988 0
0.14002204 -0.054975536 1.8812039 -5.0146817e-16 -0.95914567 -0.2829127 0
0.14062445 -0.054975536 1.8812039 -5.0146817e-16 -0.95914567 -0.2829127 0
0.13832864 -0.053618614 1.8347714 0.59233308 -0.59234434 -0.54614073 0
0.14032157 -0.053799126 1.8368572 0.42724061 -0.76721823 -0.47837397 0.0048716362
0.14084443 -0.053681705 1.8369304 0 0 1 0
-0.039991334 -0.050420802 1.7445434 0.037760247 -0.026420001 1.2550464 0.031325508
-0.029284365 -0.050249517 1.7387112 1.4575683 -0.53790426 -0.29991266 0.017088436
-0.028072622 -0.05021216 1.7368506 0.30243278 -0.12709677 1.0523256 0.027274992
-0.027605331 -0.050186828 1.7367443 0.13384704 -0.019450922 1.191586 0.030097332
-0.026479388 -0.050192807 1.7367586 0.2794199 -0.074082494 1.0278807 0.022153657
-0.01193205 -0.04992127 1.7271792 0.00010131588 -2.6851589e-05 1 2.2453184e-09
-0.0025208299 -0.049756117 1.7214651 7.2034309e-05 -1.0276171e-05 1 1.0845734e-09
0.0089429263 -0.049541023 1.7177993 -0.49913561 0.56567889 0.65640765 0.004471329
0.013465133 -0.049788728 1.7233808 0.55661386 -0.70115823 -0.44976065 0.0034183357
0.01516068 -0.049876936 1.725262 0.10421007 -0.47810331 -1.1488192 0.0026931749
0.015706021 -0.049866095 1.7252702 -0.071964651 -0.43947351 -1.3543757 0.0036157311
0.026368663 -0.050193228 1.738771 0.44438264 -0.70053667 -0.55836588 0.00081391516
0.037840649 -0.050651118 1.7523832 0.57287478 -0.63802618 -0.53933829 0.0027472076
0.041298714 -0.050763771 1.756328 0.12592207 -0.13220029 -1.7529101 0.012013868
0.050045528 -0.051078621 1.7682848 0.67152315 -0.59886259 -0.44501019 0.0062245154
0.058968157 -0.051458519 1.7803649 0.41273585 -0.82540196 -0.38517621 0
0.063596465 -0.051516224 1.7823997 0.93301034 -0.18349275 -0.30955145 0.012318647
0.071171872 -0.051551774 1.7840911 -1.9961675 -0.16805983 0.61237913 0.104968
0.073389083 -0.051576167 1.7844353 0.00012087007 4.0742176e-05 1 4.0792694e-09
0.09016712 -0.051694352 1.7885243 -2.9038101e-05 -1.9164258e-05 1 5.1519228e-10
0.090739883 -0.051694352 1.7885243 -1.7953082e-05 -2.7218801e-05 1 5.7724292e-10
0.093758278 -0.051727012 1.7903913 -0.8728925 -0.020464782 0.81570154 0.077215321
0.094870985 -0.051795889 1.7907392 0.14465912 -0.22748023 0.96555746 0.090073206
0.095442206 -0.051758695 1.7906049 0.60963106 -0.17111045 0.82384813 0.072380908
0.0958566 -0.051665239 1.7902373 0.99028081 -0.21800567 0.63220578 0.082031749
0.1023675 -0.052969214 1.832617 -0.09533602 0.11216927 -2.4619884 0.01667927
0.10611873 -0.053071383 1.8369476 0.56431466 -0.65718424 -0.49990898 0.0022172926
0.10744031 -0.053156007 1.8390946 0.7323783 -0.73236805 -0.13286497 8.1181298e-11
0.11404651 -0.053556405 1.8476828 0.71065664 -0.42887583 -0.59075946 0.037835613
0.11636403 -0.053463161 1.8499974 0.6377874 -0.6095165 -0.47668082 0.008676162
0.11830182 -0.05354533 1.852175 0.62845153 -0.51737612 -0.58083612 0.01070358
0.12348415 -0.053749505 1.8587867 0.13573959 -0.82057875 -0.60059738 0.0039547565
0.12676692 -0.05387456 1.8632311 0.56313258 -0.74759597 -0.35211071 0.0035718251
0.12822485 -0.054091837 1.865353 0.52189505 -0.71203041 -0.46972147 0.0041420953
0.13395441 -0.054112263 1.8721793 4.8274112 0.79447049 0.77785236 0.011522159
0.13925178 -0.054307662 1.8789396 0.24155544 -0.91954362 -0.41699263 0.0021890053
0.14457969 -0.05451319 1.8857461 -0.65051967 -0.72088319 -0.23906389 0.021585763
-0.03997637 -0.04986893 1.7445637 0.13467525 -0.06974905 1.1681801 0.031325508
-0.039430868 -0.049862705 1.7445459 -0.039103076 0.042397633 1.3645934 0.03439277
-0.029268347 -0.049700126 1.7387259 1.8859578 0.45819539 -0.2640917 0.017088436
-0.024751142 -0.049592085 1.7348721 0.16848595 0.09180741 1.2068762 0.064981945
-0.024207583 -0.049587622 1.7348572 -0.00014579005 8.5582775e-05 1 1.0841452e-09
-0.010825832 -0.049368169 1.7271792 -0.00017257026 3.0501062e-05 1 2.4897695e-09
-0.0030650201 -0.049207252 1.7214777 0.14699112 -0.0078695239 1.0801932 0.0094840275
-0.0025208299 -0.049204834 1.7214651 0.00014851865 -8.1274397e-05 1 8.2195806e-10
0.014058216 -0.049294248 1.7233415 0.53880692 -0.70001066 -0.47003531 0.0039275638
0.021880222 -0.049532574 1.7329311 0.60010147 -0.64209437 -0.4852885 0.0015878972
0.023942465 -0.0493863 1.7350014 0.59700942 -0.65198863 -0.46742982 0.010711336
0.024777213 -0.049856506 1.7367166 0.28673482 -0.9095577 -0.30081218 0.0085787894
0.026964583 -0.049698085 1.7387217 -0.54021919 0.54035187 0.64512253 0
0.036675364 -0.050032444 1.7504197 0.59531307 -0.59537226 -0.5395686 5.2702431e-10
0.038360819 -0.050054237 1.7524173 0.6609906 -0.52984977 -0.53264141 0.0043366984
0.044210415 -0.050314546 1.7602891 0.50929016 -0.76397634 -0.39618647 0
0.048885483 -0.050485332 1.7662641 0.73425883 -0.54405111 -0.41488299 0.0053999717
0.060014013 -0.050788354 1.7804301 0.62045312 -0.65724003 -0.42787084 0.016824435
0.063601837 -0.050946485 1.7823979 1.8902169 0.00024171844 2.6685047 0.0087681413
0.071123615 -0.050977908 1.7843587 -0.80888337 -0.38894859 0.74116999 0.082223795
0.072813913 -0.051020641 1.7844573 -0.11557876 -0.20360431 1.0776831 0.086490065
0.073389083 -0.051004719 1.7844353 0.00012455341 -1.4475054e-06 1 4.0792694e-09
0.080910355 -0.051063091 1.7864774 -1.2789128 -3.3284316e-05 0.99996221 9.6515185e-10
0.088448852 -0.051121593 1.7885242 -3.6871268e-05 5.5790656e-06 1 6.527186e-10
0.090739876 -0.0511216 1.7885243 -2.2816375e-05 -2.4360716e-05 1 6.6140887e-10
0.093735285 -0.051168527 1.7903923 -0.81864345 -0.044796929 0.89953423 0.047064371
0.094267868 -0.051187783 1.7907133 -0.38946575 -0.029507792 0.96030039 0.043559428
0.095431507 -0.051177807 1.7905109 0.014213565 -0.033513553 0.99951053 0.12282369
0.096001238 -0.051166825 1.7904192 0.21298358 -0.030521521 0.99662417 0.15324429
0.10310863 -0.052498791 1.8325285 0.62565923 -0.66063434 -0.44219986 0.011861678
0.10339181 -0.052269567 1.8327026 0.81491405 -0.44449466 -0.39666367 0.011861678
0.10432277 -0.052511431 1.834712 0.66210377 -0.54102689 -0.52171928 0.0085355146
0.11394753 -0.052900016 1.8477536 0.019752478 -0.53526795 -1.6479616 0.066807456
0.11694457 -0.052856177 1.850008 0.8704139 -0.71677625 -0.054248195 0.010011814
0.12209622 -0.053006954 1.8566349 0.30981609 -0.91945708 -0.38137081 0.009535416
0.12734805 -0.053257231 1.8632408 1.7216008 -1.721625 2.7529647 0.0044839941
0.13061944 -0.053352032 1.8677273 0.48666579 -0.66505355 -0.56644517 0.0047503733
0.13323586 -0.053528819 1.8698786 0.3797752 -0.77104414 -0.51236385 0.010840531
0.13426104 -0.053106252 1.8701259 0.31920657 -0.82952702 -0.45824891 0.016660435
0.14451919 -0.05371796 1.8835127 -0.65051967 -0.72088319 -0.23906389 0.021585763
-0.042826887 -0.049361199 1.7465029 0.00051964982 -0.0004009101 1 3.9871604e-09
-0.039427102 -0.049306016 1.7445511 -0.1255465 4.7693098e-05 1.6617184 0.0081573231
-0.024755128 -0.049034316 1.734871 0.3270914 0.028345944 0.9812662 0.067107089
-0.0052830516 -0.048707273 1.7233655 0.6626665 -0.24427457 0.71045887 0.0041156467
0.010180009 -0.048655212 1.7175804 0.28861877 -0.71685946 -0.63467449 0.01331177
0.013465515 -0.048652541 1.7214657 0.53495908 -0.72963709 -0.42596766 0.00082649232
0.021301623 -0.048923314 1.7310095 0.64787686 -0.64793319 -0.40054739 6.8051412e-11
0.029224355 -0.049196079 1.7406605 0.00028514268 -0.00035642885 0.99999988 0
0.033796821 -0.049361203 1.7465029 0.64757049 -0.64759731 -0.4015846 0
0.03886766 -0.049448095 1.7524598 0.63043368 -0.5447253 -0.55435818 0.0053773811
0.043495718 -0.04956403 1.7584045 0.52833748 -0.67855835 -0.51031178 0.0033730741
0.059394736 -0.050181191 1.7783868 0.72592467 -0.58596295 -0.38205981 0.0081051225
0.064245969 -0.050433274 1.7844352 0.07081297 -7.6391814e-05 -3.2885685 0.0087681413
0.071080752 -0.050458141 1.7845272 -0.3248899 -0.32201907 0.89769751 0.052417893
0.088448852 -0.05054884 1.7885242 -2.8434071e-05 -6.0538609e-06 1 4.2128834e-10
0.09016712 -0.050548844 1.7885243 -4.761948e-05 -1.4783782e-05 1 5.8042632e-10
0.090739883 -0.050548844 1.7885243 -4.0360483e-05 -2.0906406e-05 1 6.103249e-10
0.093711011 -0.050606824 1.7905757 5.2850861e-05 4.5511006e-05 1 3.0467584e-09
0.094284423 -0.050606828 1.7905757 9.2189212e-06 3.0372845e-05 1 3.0467584e-09
0.09547437 -0.05056883 1.7903023 -0.38430259 -0.022882564 0.95806515 0.14743695
0.09601938 -0.050569367 1.7904435 -0.3842271 -0.15431336 0.95882112 0.17377284
0.10351709 -0.051774237 1.8326308 1.0102526 -0.15995687 -0.52383459 0.011627324
0.10731388 -0.051916942 1.8369304 0.62363869 -0.62362218 -0.47185686 0.0019176819
0.11241677 -0.052100897 1.8434383 0.00012763095 -0.76500481 -0.64402455 6.1888095e-10
0.11300711 -0.052100919 1.8434383 -2.6099378e-05 -0.76502997 -0.64399469 1.1246645e-09
0.11623444 -0.052225664 1.8478014 0.041434769 -0.8746382 -0.78204596 0.019645846
0.11707129 -0.052413303 1.8499011 0.91806066 -0.03434043 -0.95216513 0.010011814
0.11746469 -0.05217839 1.850069 0.28508466 0.0059921909 -1.7585802 0.010011814
0.12284235 -0.052641388 1.8564817 0.3661671 -0.80312485 -0.48873901 0.0093737636
0.12332574 -0.052471701 1.8565935 0.440557 -0.74896002 -0.49699086 0.0093737636
0.12378251 -0.052258056 1.856735 0.58987391 -0.69531506 -0.43194568 0.011278444
0.12854141 -0.052660551 1.8632408 -0.64712518 -0.42732626 -2.5120842 0.0044839941
0.13444445 -0.052954197 1.8698699 1.6159399 -0.47050253 -0.025214322 0.013304029
0.13708124 -0.052936964 1.874457 0.58040595 -0.65282476 -0.48677385 0.013300719
0.13897671 -0.052932061 1.8767717 0.60570747 -0.60949522 -0.51150173 0.0055610402
0.14388843 -0.053145401 1.8835026 -0.65051967 -0.72088319 -0.23906389 0.021585763
0.14423634 -0.053428248 1.8834088 -0.65051967 -0.72088319 -0.23906389 0.021585763
-0.043945484 -0.048801903 1.7465029 2.5373962e-05 5.0750423e-06 1 5.4592602e-09
-0.041223373 -0.048742127 1.7463627 0.39947593 -0.16079012 0.92928708 0.023623258
-0.03942693 -0.048747383 1.7445511 -0.12784827 0.00012337019 1.6661437 0.012223601
-0.024759248 -0.04847889 1.7348664 0.30943778 -0.1476281 0.94663548 0.072963603
-0.023096446 -0.048476487 1.7348571 -7.0181632e-05 0.0001205223 1 1.2823885e-09
-0.019732695 -0.048425902 1.7329419 0.5989868 -0.23013869 0.76697522 0.00058968383
-0.0069460566 -0.048208691 1.7252705 0.021325534 -0.004910693 1.4142622 0.0024166268
0.0023841339 -0.048037559 1.7195016 0.62021059 -0.13512819 0.77270901 0.0046190363
0.0046620648 -0.048002027 1.7177082 0.63606489 -0.13459294 0.75980669 0.00087292533
0.015679464 -0.04814399 1.7233741 0.55939847 -0.67566842 -0.48094893 0.002896616
0.030339208 -0.048638653 1.7406604 0.00028514332 -0.00035642917 0.99999988 0
0.037796434 -0.048911314 1.7504197 1.25281 -1.2526211 1.0198379 0.0047122911
0.038961243 -0.048966233 1.7523847 0.056372084 -0.056467541 -1.8338263 0.0083516398
0.042045929 -0.049204644 1.7561598 0.65789998 -0.45648524 -0.5989899 0.015101555
0.045901552 -0.04918712 1.760289 0.46126804 -0.69195998 -0.55535859 0
0.04873807 -0.049234908 1.7643205 0.74583852 -0.51298296 -0.42493933 0.0013247423
0.054766759 -0.04957382 1.7722462 0.53784609 -0.70758462 -0.4583073 0.0034156637
0.056494299 -0.049578466 1.7742943 -0.021500643 -0.41252464 -1.3977039 0.0049454374
0.057062495 -0.049578469 1.7742943 0.20881532 -0.92435223 -0.51148367 0.0033573038
0.058833953 -0.049634881 1.7763131 0.73005337 -0.49445775 -0.47209564 0.0033978091
0.065012224 -0.05090934 1.8219231 0.99936396 5.4754792e-06 -0.03566137 0
0.064664498 -0.049796958 1.784469 0.90209728 -0.38270527 -0.19939208 0.0074772099
0.071103305 -0.049861833 1.7844353 -2.4095787e-05 -1.3918578e-05 1 1.368432e-09
0.073343448 -0.049908582 1.7845893 -0.66912192 -0.20070089 0.8270371 0.057226323
0.078621961 -0.049918894 1.7864774 0.00012360669 5.7299025e-05 1 9.4493668e-10
0.080910362 -0.049918897 1.7864774 -8.4053659 2.9988358e-05 0.99993128 1.4218132e-09
0.084439576 -0.049976084 1.7885242 4.7077887e-05 -1.4359804e-05 1 7.7239337e-10
0.085012332 -0.049976084 1.788524 9.868561e-05 -0.00013611992 1 6.0088934e-10
0.088448852 -0.049976084 1.7885242 -2.7922551e-05 -1.0046233e-05 1 3.3393999e-10
0.090739883 -0.049976088 1.7885243 -1.6859325e-05 2.2514691e-06 1 8.2584284e-10
0.093711011 -0.050033409 1.7905757 2.2262242e-05 5.3306798e-05 1 2.9107379e-09
0.096019514 -0.050014328 1.7905037 -0.76821858 -0.1751664 0.84996653 0.1682409
0.096467413 -0.049976088 1.7885242 1.8968611 0.00158133 -2.6161785 0.036945269
0.10356271 -0.051227629 1.8326048 1.2442144 -0.067371078 -0.25824887 0.011627324
0.10783791 -0.051268488 1.836977 0.64481068 -0.60451204 -0.46774399 0.0021162189
0.12197553 -0.051792096 1.8544031 0.43640622 -0.76253587 -0.48266485 0.003006113
0.1239716 -0.051951323 1.8565432 0.59998757 -0.66696066 -0.457432 0.0076002106
0.13183956 -0.052188452 1.8676995 -0.012198937 0.061456304 -1.9204454 0.008782235
0.13237859 -0.052101392 1.867772 0.58510882 -0.95813739 -0.13499874 0.028810563
-0.041708298 -0.048242606 1.746503 -0.00039379305 6.1912215e-05 1 3.9871604e-09
-0.039427012 -0.04818869 1.7445511 -0.13194613 0.00024741024 1.598065 0.0080907065
-0.02700834 -0.047977503 1.7367959 -0.22668037 0.094048932 1.5620987 0.025449324
-0.025929142 -0.047964994 1.7367606 0.28507507 -0.046463858 1.1444777 0.016346641
-0.024683731 -0.047984287 1.7350229 0.33095688 -0.18410394 0.9438746 0.037092563
-0.023096446 -0.047920916 1.734857 -4.9652062e-05 6.3213345e-05 1 1.4877574e-09
-0.022017861 -0.047903147 1.7347568 0.26993248 -0.17302991 0.94791144 0.021484371
-0.0069473791 -0.047655888 1.7252694 -0.049349919 0.010312294 1.5171375 0.0015118596
-0.0014182719 -0.047550999 1.7214651 -6.7340356e-05 1.9878125e-05 1 1.1001789e-09
0.0084789097 -0.047380477 1.7158102 -0.47673899 0.15599294 1.1421728 0.048512895
0.010125092 -0.047394205 1.7157888 46.979023 62.634163 -127.87304 0.06910938
0.017916013 -0.047656108 1.7252703 0.53837484 -0.71786267 -0.44139063 0
0.02238792 -0.047784634 1.7310287 0.60967207 -0.6900242 -0.40213838 0.0054141097
0.025232669 -0.046878941 1.6971349 0.49186623 -0.73775369 -0.46237114 0
0.033759065 -0.048188705 1.7445512 0.64761537 -0.64757031 -0.40155575 2.7555305e-11
0.038357098 -0.048350859 1.7504195 1.2476078 -1.2476254 1.0709444 0.0051801889
0.039521836 -0.048404403 1.7523853 0.070327669 -0.055372488 -1.7142994 0.0083357133
0.040082034 -0.048403177 1.7523862 -0.055241283 0.079945758 -1.963415 0.010509199
0.042852748 -0.04842151 1.7564491 0.65789998 -0.45648524 -0.5989899 0.015101555
0.055825148 -0.048894208 1.7723172 0.51492137 -0.75519109 -0.41196001 0.0044718306
0.057657298 -0.049036857 1.7742718 0.60899234 -0.60225552 -0.51620197 0.0049387687
0.060039967 -0.049121931 1.7783368 0.641482 -0.6562041 -0.40457925 0.0071986527
0.065012217 -0.050325889 1.821923 0.99936396 5.4754792e-06 -0.03566137 0
0.064945027 -0.049373996 1.7844167 0.83026624 -0.54399967 -0.12133584 0.0033018228
0.080910347 -0.049346793 1.7864774 -0.00012766742 -1.4675013e-06 1 9.5126307e-10
0.089021608 -0.049403336 1.7885242 -3.5415062e-05 -6.0482203e-06 1 6.0278682e-10
0.089594372 -0.049403336 1.7885243 -4.9220827e-05 4.5244142e-06 1 8.9817431e-10
0.09016712 -0.049403336 1.7885243 -3.5854162e-05 -2.5529391e-06 1 6.23743e-10
0.090739876 -0.049403336 1.7885243 -3.0750085e-05 6.0467532e-06 1 6.2374295e-10
0.093711004 -0.049459998 1.7905756 -7.1101049e-06 4.005634e-05 1 3.0910361e-09
0.096005104 -0.049459431 1.790574 -0.8392399 -0.30549493 0.76743031 0.17338839
0.096688971 -0.049516805 1.792632 1.8385738 -0.00012267755 2.1692364 0.021889199
0.10338521 -0.050525643 1.8304878 0.6167109 -0.69676709 -0.36735901 0.012836508
0.11933327 -0.051101223 1.8499919 4.5731333e-05 9.1463016e-06 1 1.1873512e-10
0.12267938 -0.051337671 1.8543034 0.44843066 -0.74523425 -0.50850666 0.0073142159
0.1231103 -0.051150475 1.8544439 0.50675619 -0.71200103 -0.50315839 0.0075405193
0.12450829 -0.051274396 1.8565998 0.64316136 -0.30725709 -0.87550038 0.014210017
0.12777576 -0.051366977 1.8610494 0.3182236 -0.75192589 -0.57735711 0.0007310278
0.13372089 -0.051682536 1.8676165 0.47811672 -0.66876078 -0.58155054 0.033201873
0.13413867 -0.051497582 1.8677977 -0.51820648 0.57244557 0.63866162 0.034680817
0.13771683 -0.051776189 1.8744274 -0.51197648 -0.84247154 -1.4008166 0.010063996
0.13831711 -0.051776186 1.8744274 0.5119887 -1.1337101 0.12119155 0.010063996
-0.041708298 -0.047683306 1.7465028 -0.00089111796 0.00079064816 1 3.9871604e-09
-0.019227596 -0.047296785 1.7328811 0.61754864 -0.23827574 0.7495721 0.00078101864
-0.01694753 -0.047260303 1.7310095 0.083240323 -1.1584109e-05 1.2400858 0.0036165712
-0.00086699263 -0.046999723 1.7214651 -256.87689 3.5439156e-05 0.99705648 2.5725708e-09
0.0024379934 -0.046947949 1.7195688 0.0005051191 -3.6079953e-05 0.99999994 1.4325099e-09
0.0084767081 -0.046844743 1.7157887 0.00045198656 0.00014463636 1 6.4113509e-10
0.021831753 -0.047207959 1.7290922 0.62486893 -0.62491459 -0.46912935 0.0014787146
0.023018183 -0.047328983 1.7309667 0.51530129 -0.78887266 -0.35697678 0.0062587154
0.024654979 -0.04731277 1.7329313 1.0263685 -0.90983862 0.84062296 0.0049201581
0.030996686 -0.04763617 1.7405559 0.54561228 -0.61279273 -0.57165754 0.005437091
0.033085641 -0.047466405 1.7426775 0.50474817 -0.71766526 -0.47977689 0.0023252955
0.045355055 -0.048087303 1.7582436 0.55282152 -0.66174954 -0.5064345 0.0011036559
0.048203427 -0.048100278 1.7622848 0.66994518 -0.64048749 -0.47307718 0.0058527528
0.059402805 -0.048497196 1.7763132 0.57198948 -0.64924401 -0.51744574 0.0061337259
0.061192527 -0.048569243 1.7783239 0.53812629 -0.66584629 -0.51678705 0.0052614417
0.064936422 -0.049684454 1.8197991 0.99936396 5.4754792e-06 -0.03566137 0
0.074043997 -0.048772771 1.7864754 0.46090001 -0.29361349 0.94953567 0.049222127
0.078049868 -0.048774701 1.7864774 6.8591915e-05 4.3005039e-05 1 7.5801421e-10
0.080910355 -0.048774697 1.7864774 -0.00014130591 -1.8882542e-05 1 9.5126307e-10
0.085585088 -0.048830576 1.7885242 -1.6264152e-05 -3.8494636e-05 1 1.5963185e-09
0.086157836 -0.048830576 1.7885242 -8.4389849e-06 -3.2472115e-05 1 4.5905493e-10
0.09016712 -0.04883058 1.7885243 -1.476871e-05 -6.0076326e-07 1 4.8015847e-10
0.093711004 -0.04888659 1.7905756 -0.000130959 3.3238426e-05 1 2.924877e-09
0.095995396 -0.048894547 1.7905996 -0.88379776 -0.21016736 0.70951492 0.15475376
0.096688971 -0.04894273 1.792632 1.8458047 0.00017995779 2.2675278 0.016864477
0.10400543 -0.049975749 1.8304685 0.61518633 -0.83244407 -0.084191985 0.0062335758
0.10718774 -0.050093226 1.8347714 0.59596628 -0.59594363 -0.53821504 0
0.11338031 -0.050148275 1.8413606 -0.18530625 -0.81656253 -0.95295715 0.0047388072
0.11668693 -0.050389349 1.8456175 -0.00033439865 -0.76574433 -0.64314502 0
0.13485588 -0.051011425 1.8676784 0.086217232 -0.42232898 -1.3382087 0.041559756
0.13742815 -0.051014502 1.8722517 0.70706671 -0.57266337 -0.41486537 0.0053834305
0.14466715 -0.051299118 1.8789396 -1.8429319e-05 -7.0032591e-05 1 3.6512258e-09
-0.04115222 -0.047122873 1.7464985 -0.0045069302 0.020407191 1.2746366 0.013343427
-0.021985311 -0.046809785 1.7348571 -7.4942036e-05 -5.9107451e-06 1 9.544695e-10
-0.01918615 -0.046757817 1.7329311 -0.0036799028 -0.013546302 1.3579614 0.0011251159
-0.016953319 -0.046704147 1.7310027 -0.016988665 0.0036197861 1.3574671 0.0044321297
-0.0063938857 -0.046551112 1.7252702 68.725601 -0.00015757456 0.99093807 2.6770921e-09
-0.0036273887 -0.046499722 1.7233655 2.399965e-05 4.0438991e-10 1 1.1310832e-09
-0.00086699269 -0.046448443 1.7214651 1115.0464 0.00010074683 1.0482235 7.1415918e-09
0.0024379934 -0.046397276 1.7195688 0.00014322177 2.1741489e-05 1 8.6879209e-10
0.0051875454 -0.046346702 1.7176788 -0.083435141 0.033257991 1.4612638 0.0015099199
0.024549125 -0.046619844 1.7310733 0.67589867 -0.59041196 -0.45365095 0.014155891
0.025209928 -0.046757821 1.7329311 1.5496837 -1.7461456 2.0105789 0.020072399
0.025205268 -0.04574224 1.695292 0.49186623 -0.73775369 -0.46237114 0
0.026863134 -0.045791972 1.697135 0.49186623 -0.73775369 -0.46237114 0
0.031966705 -0.046919081 1.7407061 0.56356001 -0.59515554 -0.57287872 0.0041974694
0.041786138 -0.047319099 1.7523557 0.37748742 -0.72425663 -0.57702303 0.0016189945
0.048878588 -0.047686186 1.7621888 0.3444078 -0.80875278 -0.52931041 0.0094391685
0.057029493 -0.047867995 1.7722483 0.6386894 -0.65080631 -0.44830161 0.0044542281
0.069388971 -0.0481475 1.7844352 3.5378916e-06 7.9428719e-05 1 2.8959446e-09
0.071103312 -0.0481475 1.7844353 -2.706894e-05 -1.2036933e-05 1 1.666595e-09
0.079766162 -0.0482026 1.7864773 -1.6132855e-05 -9.2579558e-06 1 9.5298058e-10
0.080910355 -0.048202604 1.7864774 -0.000142433 -2.372764e-05 1 7.7072559e-10
0.08386682 -0.048257828 1.7885242 3.7638096e-05 -7.0038636e-06 1 9.7224162e-10
0.085585088 -0.048257828 1.7885242 -3.7880338e-05 -1.4819227e-05 1 1.2596463e-09
0.086157843 -0.048257824 1.7885242 -4.9420963e-05 -4.5050852e-05 1 1.0633125e-09
0.090191096 -0.048249103 1.7884133 -0.67012876 0.16860828 0.89453864 0.05491722
0.093711004 -0.048313178 1.7905756 -4.2912907e-05 1.9034933e-05 1 2.6410829e-09
0.10386398 -0.049307387 1.8283412 0.51978481 -0.72925609 -0.44895032 0.0059178919
0.1051778 -0.04938956 1.8304684 -0.13514872 0.20262624 -2.545135 0.012075205
0.11346346 -0.049680844 1.8412638 -0.60760999 0.16764429 -2.5727425 0.011105972
0.1140531 -0.04968084 1.8412638 0.60760105 1.2464142 -2.9856749 0.011105972
0.12244061 -0.049975626 1.8521873 1.245738 -1.2453222 1.1244366 0.0053823669
0.12428221 -0.049948905 1.854453 0.72929084 -0.5441438 -0.43825978 0.0034925654
0.13289699 -0.050349511 1.8654526 1.1600776 -1.0063877 0.65479779 0.021628156
0.14011788 -0.050575662 1.8744273 -6.1624156e-10 9.9298704e-05 1 0
0.14346375 -0.050697427 1.8789396 -0.38864937 -0.81035918 -1.5207167 0.0549943
0.14886676 -0.050919287 1.8857213 0.74145198 -0.54388571 -0.39298514 0.00071288837
-0.04567448 -0.046616871 1.7484592 0.00010645093 -1.4456413e-19 1 0
-0.0236228 -0.046268597 1.7349211 0.26675531 -0.13133989 0.97062844 0.034792539
-0.016943639 -0.046152834 1.7310139 0.092475615 -0.025294675 1.2720908 0.0065130382
-0.016388807 -0.046153348 1.7310147 -0.092447855 0.036243953 1.4419792 0.0074704573
-0.0063938862 -0.045998614 1.7252703 67.925179 -9.6068456e-05 0.99104363 2.6770921e-09
-0.0036273883 -0.045947831 1.7233654 0.99999571 -2.1093966e-07 0.0029296684 0
-0.00086699275 -0.045897163 1.7214652 1726.7146 8.0389131e-05 1.074677 7.1415918e-09
0.0030087235 -0.045854487 1.7195923 -0.069795914 0.014850869 1.4189655 0.0059469356
0.0051893746 -0.04579711 1.7176805 0.84636158 -0.18729675 0.54540914 0.0042015342
0.0079272473 -0.045745824 1.7157887 0.0002711931 0.0002169541 1 6.4113509e-10
0.0084767081 -0.04574582 1.7157887 1.1678336e-05 2.8511171e-05 1 4.7571103e-10
0.020125987 -0.045998592 1.7252702 0.56160414 -0.74880522 -0.35198221 5.2538168e-11
0.021273142 -0.046072308 1.7271645 0.5768894 -0.68145758 -0.4506858 0.0019650983
0.022958959 -0.046130054 1.7290716 0.43698955 -0.74228823 -0.51048839 0.003482155
0.0342388 -0.046418127 1.7426364 0.60329717 -0.63323343 -0.48481745 0.0015643359
0.040048666 -0.046684127 1.7504103 0.51926261 -0.73453194 -0.43892649 0.0046418207
0.0469754 -0.046878584 1.7583066 0.5054999 -0.72164452 -0.47316667 0.0061929086
0.048252366 -0.047054153 1.7602216 0.50938064 -0.77016956 -0.39144698 0.0053588091
0.04865038 -0.046836127 1.760345 0.47004405 -0.77824253 -0.42338237 0.006732129
0.050468195 -0.04698531 1.7622762 -0.093623638 0.072584696 -2.7571259 0.01180636
0.056339916 -0.047167767 1.7702879 -0.33305937 -1.1192636 -1.0392028 0.0057493574
0.056862608 -0.047116179 1.770318 0.58001173 -0.64214182 -0.51616573 0.0057493574
0.065884992 -0.047521736 1.782398 0.89154905 -0.44576761 0.080196999 0
0.068817534 -0.047576055 1.7844352 -0.00022639618 2.3405178e-06 1 3.6053334e-09
0.069388978 -0.047576055 1.7844352 -0.00010345661 2.8345798e-06 1 2.3116751e-09
0.071068108 -0.047582053 1.7845308 -0.73963755 -0.062657766 0.79096699 0.05084762
0.074617274 -0.0476305 1.7864776 -0.0001454521 3.1249321e-05 1 2.1426874e-09
0.078621961 -0.0476305 1.7864773 9.3021454e-06 1.8623452e-05 1 5.6220811e-10
0.080910355 -0.047630504 1.7864774 -0.00021703233 -5.0231763e-05 1 1.1050023e-09
0.083866827 -0.047685076 1.7885242 7.9419624e-05 7.7975455e-06 1 1.1337509e-09
0.085585088 -0.047685072 1.7885242 -4.859396e-05 -4.7016515e-06 1 1.0893865e-09
0.086157836 -0.047685072 1.7885242 -9.9990575e-05 -9.9621493e-06 1 1.2596463e-09
0.10203029 -0.048724495 1.8261579 0.45010316 -0.7016409 -0.55236512 0.0011549329
0.11218389 -0.04907212 1.8390623 0.25174031 -0.8018564 -0.63848352 0.0049501765
0.11267576 -0.048954561 1.83916 0.36427405 -0.75045186 -0.58849567 0.0049501765
0.12306568 -0.049410217 1.8521643 0.92436683 -0.96315634 0.35350636 0.0059083086
0.12447945 -0.049546577 1.854305 0.77273792 -0.50234997 -0.42478341 0.0041886582
0.12773767 -0.049674336 1.8587155 0.55805349 -0.66012698 -0.50280082 0.002591979
0.12814759 -0.049455088 1.8588827 0.55805349 -0.66012698 -0.50280082 0.002591979
0.13331304 -0.049627606 1.8655814 1.2025127 -0.78469616 0.47191417 0.029452033
0.1342596 -0.049816649 1.8676779 0.21136366 -0.11898038 -1.5080359 0.031147124
0.14527291 -0.050099153 1.8789368 0.080156118 0.046095178 -2.0768828 0.054658938
0.14941865 -0.050277248 1.8857489 0.64486659 -0.64487851 -0.41021791 0
-0.044554628 -0.046056945 1.7484591 0.00010645093 -1.4456413e-19 1 0
-0.025348619 -0.045748733 1.7367854 -0.23354593 -0.024857316 1.6352992 0.015309604
-0.02254088 -0.04569865 1.7348571 3.7131198e-05 -8.9377054e-06 1 9.786485e-10
-0.018647438 -0.045641977 1.7329122 0.39828604 -0.14735609 0.9645533 0.0035209579
-0.01639678 -0.045595899 1.7310053 -0.025853299 0.011511194 1.3773837 0.0074704573
-0.013606432 -0.045546796 1.7290924 -0.00064586184 4.3057447e-05 0.99999976 0
-0.0063938862 -0.045446116 1.7252703 0.00018923372 -3.7846447e-05 1 1.7611251e-09
-0.0036273885 -0.045395948 1.7233655 0.99999571 -2.1093966e-07 0.0029296684 0
-0.00086699269 -0.045345888 1.721465 2002.1703 3.2210864e-05 1.0865898 7.1415918e-09
0.0052264701 -0.04526009 1.7177236 0.40408653 -0.12983921 0.96812731 0.0092450874
0.026867958 -0.045638602 1.7329401 0.46910757 -0.64044136 -0.60808963 0.00055507
0.030271696 -0.045749493 1.7367872 -0.15127856 0.07058835 -2.4117477 0.047187056
0.039481532 -0.046105485 1.7484277 0.63603109 -0.64830047 -0.41853431 0.0068746693
0.039814949 -0.045874607 1.7485768 0.63603109 -0.64830047 -0.41853431 0.0068746693
0.04759502 -0.046392638 1.7582545 0.52227288 -0.70817071 -0.47512531 0.004740173
0.048023973 -0.046209656 1.7583781 0.51512718 -0.72244585 -0.46173924 0.0060989354
0.049294561 -0.046381891 1.760281 0.54830527 -0.71160626 -0.44035792 0.0066764164
0.056967862 -0.046679776 1.7702419 1.3002499 -0.29079232 -0.23331523 0.0066494197
0.063456915 -0.046843968 1.7783368 0.51341343 -0.68458509 -0.5174455 0
0.074045174 -0.0470584 1.7864774 -9.8154866e-05 -4.5297704e-05 1 1.0633778e-09
0.074617274 -0.047058407 1.7864774 -0.00013883751 4.3483738e-05 1 1.4682675e-09
0.075761475 -0.047058403 1.7864774 -1.6876336e-05 1.5469846e-05 1 6.1649769e-10
0.079194054 -0.047058403 1.7864773 2.4462324e-05 -8.4720577e-06 1 7.801832e-10
0.083866827 -0.04711232 1.7885242 7.4426658e-05 1.5272415e-05 1 1.0175871e-09
0.086157843 -0.04711232 1.7885242 -0.00010417893 -6.5497866e-06 1 1.2224622e-09
0.086730599 -0.047112316 1.7885243 -0.00018959468 -2.1223303e-05 1 1.9386224e-09
0.090701215 -0.047107343 1.7885462 0.29022938 -0.042640723 -1.5144629 0.050853912
0.093711004 -0.047166355 1.7905756 -4.1253112e-05 -2.0355699e-05 1 2.9948948e-09
0.10681538 -0.048091777 1.8305928 0.56509846 -0.58576769 -0.58098185 0.0067164246
0.11333776 -0.048453774 1.8390872 0.5069564 -0.68625945 -0.52504444 0.0049054353
0.11654915 -0.048558835 1.8434381 0.68642634 -0.68644077 -0.32194176 0.003899409
0.12361524 -0.048779085 1.8521957 0.62804788 -0.57203817 -0.53024244 0.0042391876
0.12499469 -0.048879396 1.854359 0.46966618 -0.44449642 -0.86064935 0.0057359454
0.13492472 -0.049255144 1.8676414 -0.10003268 -0.42478356 -1.8981324 0.032062102
0.1373869 -0.049256839 1.8699368 -0.00039134684 -0.77008981 -0.63793534 0
0.14335746 -0.049512058 1.8766366 0.59557641 -0.69792742 -0.39772606 0.013670381
0.14385474 -0.049390171 1.8767116 0.21956235 -0.78145051 -0.74254066 0.024782127
0.14526683 -0.0494923 1.8789414 0.19954167 -0.06184556 -1.674399 0.04548239
0.14863522 -0.049613427 1.8834738 0.78685343 -0.53818995 -0.42796436 0.0059644049
-0.044554628 -0.045497026 1.7484591 0.00010645093 -1.4456413e-19 1 0
-0.037750982 -0.045395333 1.7445511 0.82436419 -0.050813891 0.7045458 0.038431037
-0.036034729 -0.045344643 1.7426038 0.086185671 -0.072778098 1.3503139 0.0048493822
-0.035477042 -0.045344517 1.7426033 -0.088341601 0.0065743658 1.5340942 0.0052530593
-0.025354069 -0.045192003 1.7367802 0.7054581 -0.12792753 0.69711071 0.00089796016
-0.02254088 -0.045143083 1.7348571 0.00014084246 2.7957733e-06 1 1.0870091e-09
-0.016396932 -0.045041438 1.7310055 0.045512147 -0.015880354 1.370474 0.0082774423
-0.0063938857 -0.044893619 1.7252703 -8.1348539e-05 3.7846221e-05 1 1.2881879e-09
-0.00086699281 -0.044794608 1.7214652 2781.8057 4.957441e-05 1.1203076 7.1415918e-09
0.0035545754 -0.044751745 1.7195874 -0.02571208 0.045162782 1.3756951 0.0057338625
0.013420079 -0.044644769 1.7157911 0.34384415 -0.37525848 2.1698189 0.010864045
0.022905929 -0.044933673 1.7271848 0.58392006 -0.69341367 -0.42233467 0.0017584016
0.025334531 -0.045168556 1.730889 0.6589008 -0.54244512 -0.52115554 0.031505756
0.030827884 -0.045193307 1.7367873 0.0054770135 0.076195583 -2.1694508 0.047187056
0.031337831 -0.045160763 1.7368162 0.40362149 -0.16504779 -1.3627027 0.034904342
0.033683766 -0.045294095 1.7406607 0.59524214 -0.59520364 -0.53983277 0
0.042280886 -0.045548037 1.7504197 0.37104332 -0.74214107 -0.55816978 0
0.046364762 -0.045707494 1.7563232 0.65516955 -1.786938 0.96881086 0.0038744286
0.048607208 -0.045686018 1.7583526 0.59165394 -0.65764052 -0.46668476 0.0049538538
0.051031679 -0.045855548 1.7622768 0.026884053 -0.033772573 -2.1154556 0.0061118016
0.060432225 -0.046112526 1.7743378 0.48251244 -0.69412243 -0.53420579 0.0028955911
0.062271398 -0.046258621 1.7762891 0.48501363 -0.73225594 -0.47808266 0.00019914361
0.066455789 -0.046380147 1.7823979 0.89352095 -0.44676664 -0.044942789 0
0.069388978 -0.046433162 1.7844353 -0.00017682472 2.8963439e-05 1 3.4012775e-09
0.075761475 -0.046486307 1.7864774 0.00015108571 -3.6613881e-05 1 1.0671682e-09
0.080338262 -0.046486307 1.7864774 -0.000132563 -3.0458339e-05 1 9.0705804e-10
0.08386682 -0.046539564 1.7885242 8.5218948e-05 1.2833136e-05 1 1.3349334e-09
0.086157843 -0.046539567 1.7885242 -0.00011555503 -1.0763567e-05 1 1.2224622e-09
0.090739988 -0.046539579 1.7885243 0.077632159 0.00023256059 -2.7796106 0.012290531
0.091427423 -0.046587121 1.7905569 -0.77074355 0.1685053 0.81500876 0.041974138
0.093711004 -0.046592943 1.7905756 -0.0010618521 -3.7158723e-05 0.99999994 2.8172908e-09
0.10375437 -0.047510732 1.8261925 0.5633111 -0.65474725 -0.50413918 0.0045966175
0.10506239 -0.047583483 1.8283176 0.6291762 -0.59575289 -0.50194168 0.0031925095
0.1171395 -0.047968492 1.8434381 0.04847765 -0.048478007 -2.076787 0.0041635265
0.12417132 -0.048150796 1.8522218 0.6568073 -0.59069479 -0.46901539 0.0053065666
0.12748823 -0.048310794 1.8565929 -0.16189109 -1.088061 -0.6031509 0.0039156671
0.13411097 -0.048576195 1.8654499 0.65142369 -0.67683095 -0.35446894 0.0059157694
0.14530304 -0.048920773 1.8789142 0.41148278 -0.10229773 -1.3451791 0.04548239
0.14781059 -0.048922691 1.8812289 0.75030786 -0.49673903 -0.43622065 0.00094835204
-0.040584773 -0.044888038 1.746507 -0.0063954885 -8.6896114e-05 1.5867409 0.0051565184
-0.035478909 -0.044785708 1.7426015 -0.016503645 -0.004847494 1.4692121 0.0087937452
-0.025346888 -0.044637118 1.7367872 1 -0 -0 0
-0.016340317 -0.044510771 1.7310724 0.29262951 -0.18199259 1.0427607 0.0061005047
-0.0063938862 -0.044341121 1.7252703 43.27726 0.00010497907 0.99736625 1.1063531e-09
0.0035431718 -0.044196166 1.719573 -0.039784506 0.014812732 1.4395369 0.0059224176
0.0040685544 -0.044186588 1.7195462 0.17855045 -0.038511474 1.2434193 0.0075243134
0.0079938099 -0.044122085 1.7159008 0.21245269 -0.30529788 0.99045664 0.014940766
0.014037784 -0.044203695 1.7156857 0.57918084 -0.81593072 -0.35957107 0.025824623
